# .PCD v0.7 - Point Cloud Data file format
VERSION 0.7
FIELDS x y z
SIZE 4 4 4
TYPE F F F
COUNT 1 1 1
WIDTH 1278
HEIGHT 1
VIEWPOINT 0 0 0 1 0 0 0
POINTS 1278
DATA ascii
28.53043747 4.545926094 60.67906189
28.78949547 5.779566765 61.27413177
28.54633522 4.698281765 60.69741058
28.18182182 4.823959827 61.19624329
28.55628014 5.179719925 61.36894608
28.27354622 5.632446289 60.56259537
28.3828392 4.744696617 61.52072525
28.41750145 4.747050285 60.79238129
28.41270065 5.045084 61.35445023
28.84417152 4.882631302 61.17060852
28.76560211 5.14017868 61.30127716
28.82978821 5.150306225 61.53828812
28.72332573 5.315564632 61.13389206
28.30517769 4.869719982 60.78441238
27.90396881 4.149460316 61.14554596
28.63424301 4.388356209 61.7057724
28.07810783 4.908301353 61.7497139
28.49495316 5.568815708 61.2637558
28.81113815 4.600029469 60.81031418
28.21896172 5.089357376 61.00388336
28.40564728 4.986757755 61.18153381
28.7104702 4.932098866 61.68192291
28.36942291 5.065775394 61.55820465
29.15336227 4.797593594 61.13398361
28.60932922 5.056768417 61.73209
28.70415878 5.375392914 61.14712906
28.49253845 5.399271965 61.31808853
27.75079918 5.061641216 61.12897873
27.71951675 5.20169735 61.2090416
28.54556465 5.751565933 61.33053207
29.7731781 3.91694665 60.33807755
30.6050396 4.12931633 60.6925354
30.3795166 3.304191351 60.24869537
30.66196632 4.599460602 60.88954544
30.38224983 3.484971285 60.27959824
30.01518822 3.603958845 60.74058533
30.42036819 3.958393097 60.94953537
30.14011002 4.422141075 60.13931656
30.27747154 3.520991325 61.12095642
30.27087021 3.519653797 60.37134171
30.25498009 3.819211483 60.96067429
30.6603775 3.670865536 60.77613831
30.62773895 3.904776335 60.89258194
30.6746521 3.95578742 61.11241531
30.5795784 4.132883549 60.72587204
30.12618637 3.679238319 60.37090302
29.73708725 2.876966476 60.71354294
30.50870132 3.146162271 61.35612869
29.92407608 3.686364889 61.37343216
30.35601807 4.338120937 60.86039734
30.70190239 3.36397934 60.40851974
30.091465 3.875287771 60.59981537
30.26444817 3.760697603 60.76190948
30.57813835 3.730918407 61.30302429
30.19525909 3.835991144 61.15777588
30.98787498 3.544666767 60.69917679
30.46310616 3.844638586 61.35163879
30.58735657 4.160231113 60.75452805
30.33543396 4.189298153 60.89792633
29.62368202 3.795585871 60.74349213
29.53486252 3.975964069 60.78373718
30.38151932 4.507256031 60.92761993
29.39938927 5.423787117 60.02194214
30.178442 5.637413979 60.36837006
29.97460938 4.874303818 59.94767761
30.22492981 6.101831436 60.52687073
30.00530052 5.016732216 59.94979477
29.62030602 5.148488998 60.4713707
30.00972366 5.496690273 60.6346817
29.71533203 5.967246056 59.81456757
29.83230591 5.052523136 60.79973984
29.8782959 5.043042183 60.05200958
29.86023521 5.37735939 60.61494827
30.30228806 5.199979305 60.43040848
30.20700455 5.465631962 60.56188202
30.28302002 5.478319168 60.81467819
30.16587448 5.620290279 60.41493225
29.76167107 5.185705662 60.03150558
29.34083366 4.451454163 60.39237595
30.07157707 4.701313496 60.97075653
29.51412582 5.202473164 61.00871658
29.94327545 5.878332615 60.53124237
30.25878525 4.899698257 60.06294632
29.66846085 5.429423809 60.25326538
29.85097694 5.28792572 60.45722198
30.1496048 5.261622429 60.94371796
29.80441284 5.377417564 60.83477402
30.61060715 5.129006386 60.39125061
30.05873489 5.359880924 60.99452972
30.1534729 5.693455219 60.40689087
29.94272995 5.717693806 60.57660675
29.17799187 5.380867481 60.38021851
29.17080688 5.519944191 60.4585228
29.99691391 6.076123714 60.60810852
29.4090519 5.366726875 60.02091599
30.18909836 5.57979393 60.36723328
29.98449707 4.814831257 59.94633102
30.23572922 6.044246197 60.52750778
30.01448059 4.95821476 59.94929886
29.63049889 5.089558125 60.46914673
30.01972008 5.437993526 60.63356018
29.72610092 5.908628464 59.81405258
29.84332657 4.994495869 60.79881668
29.88783264 4.985182285 60.05110168
29.870121 5.318588257 60.61519623
30.31104088 5.141827583 60.43027878
30.21751595 5.406756401 60.56135941
30.29293823 5.420450687 60.81341934
30.17658234 5.563296318 60.41332626
29.77032852 5.127853394 60.03143311
29.35090446 4.392012119 60.39160538
30.08273125 4.642712116 60.97161484
29.52498627 5.144870758 61.00899124
29.95365715 5.820190907 60.53035736
30.26994705 4.841180325 60.06299591
29.67921638 5.370335579 60.25289917
29.86099625 5.230191231 60.45576096
30.16084099 5.203360558 60.94391251
29.81439781 5.318882465 60.83371735
30.6199913 5.068943024 60.38957596
30.0690403 5.302753925 60.99445724
30.16424942 5.635268211 60.40711212
29.95252991 5.659290314 60.57575989
29.18938446 5.321371078 60.38090134
29.18005371 5.46192503 60.45823288
30.00681686 6.016834736 60.60732269
29.74167824 3.970614672 60.28541183
30.56937408 4.182972908 60.63833237
30.34488487 3.360859156 60.19665909
30.62582207 4.652103424 60.83444214
30.34902 3.539325953 60.22598267
29.98221397 3.658580065 60.68987656
30.3849926 4.013274193 60.89648819
30.10513115 4.47710371 60.08595657
30.24042702 3.576133251 61.06745148
30.23654747 3.57435751 60.31818008
30.22130394 3.875384092 60.90633774
30.6282692 3.72581315 60.72164536
30.59231949 3.961672306 60.83896255
30.64101219 4.009839058 61.06063843
30.54506683 4.185466766 60.67218399
30.09387589 3.732171297 60.31699371
29.70422363 2.934715033 60.66077805
30.47275925 3.202967167 61.29899979
29.89053345 3.740528584 61.31778717
30.32087135 4.393783569 60.80609131
30.66498756 3.419446707 60.35437393
30.05628777 3.930577755 60.54509735
30.22883034 3.815937042 60.70901489
30.54327774 3.785418034 61.24742126
30.16217041 3.891469717 61.10380936
30.95477104 3.601366282 60.64617538
30.42926598 3.899481058 61.29568481
30.55125618 4.215034008 60.70027924
30.30158997 4.243231773 60.84456253
29.58813095 3.853297949 60.68844223
29.50367165 4.032010078 60.73126602
30.34873009 4.563757896 60.87459946
27.99323273 4.79914093 60.72374725
28.77466583 5.013738155 61.05356216
28.56747627 4.222520351 60.63973236
28.83282661 5.467157841 61.24608612
28.57810402 4.38123703 60.66312027
28.21962357 4.503772259 61.15034103
28.59372902 4.861789227 61.33109283
28.31584167 5.3124547 60.52740479
28.42679977 4.42953968 61.48382568
28.45173645 4.433250427 60.75591278
28.4492588 4.724137783 61.32292175
28.87299919 4.567368507 61.13896942
28.80579948 4.819913864 61.26679611
28.86505699 4.835278988 61.49801254
28.7631588 5.007656574 61.09374619
28.33553505 4.557110786 60.75230408
27.94288445 3.827272892 61.11013031
28.67788124 4.069865227 61.67959976
28.11902237 4.595399857 61.72102356
28.53339386 5.251653671 61.22779083
28.85466003 4.284427166 60.77947235
28.26037407 4.767565727 60.97204208
28.44345474 4.672887325 61.14110184
28.75396156 4.615783691 61.65182495
28.40582848 4.748394012 61.52059555
29.18545341 4.470365047 61.09414673
28.6479435 4.745375633 61.70039749
28.74669838 5.058949471 61.11623764
28.5279789 5.082205296 61.28141403
27.79812622 4.735850811 61.10092926
27.75222015 4.884380817 61.17560577
28.58062172 5.428116322 61.29410934
27.99889946 4.744308472 60.71749878
28.78165436 4.959031582 61.04712677
28.57374763 4.165616989 60.63290024
28.84025002 5.412276268 61.24137115
28.58341217 4.32551527 60.65725327
28.22591591 4.447505951 61.14226913
28.6001091 4.805951118 61.32458496
28.32300758 5.256126404 60.52132797
28.43434715 4.374117374 61.47747421
28.45750999 4.378076077 60.74966812
28.45528603 4.667591572 61.31747437
28.87767029 4.511989594 61.13358688
28.81256294 4.763511181 61.26085281
28.87095642 4.779932022 61.4909668
28.76985741 4.953635216 61.08696747
28.34051704 4.50222826 60.74682999
27.94932747 3.77052331 61.10407257
28.6852951 4.013776779 61.67532349
28.12582016 4.540393353 61.71621323
28.53993225 5.19581604 61.22164154
28.86209106 4.228888512 60.77430344
28.26743317 4.711033821 60.96671295
28.44989395 4.617660046 61.13412094
28.76132584 4.560204983 61.64678192
28.41179657 4.692541122 61.51411819
29.19069481 4.412745476 61.08740616
28.65443611 4.69053936 61.69501495
28.75396729 5.0033288 61.11101532
28.53389168 5.026511192 61.27515793
27.80625916 4.678302288 61.09618759
27.75753403 4.828506947 61.16978073
28.5863533 5.371112823 61.28778839
29.45976639 5.042700768 60.0139389
30.24699593 5.253236771 60.36093903
30.03807831 4.476608276 59.93771362
30.2951355 5.718505859 60.53045654
30.06350517 4.626550674 59.94501877
29.68466377 4.755185127 60.45483398
30.0742836 5.10498476 60.6261673
29.78477478 5.575638771 59.80958557
29.90461159 4.665157318 60.79308319
29.93917847 4.656670094 60.04449844
29.92351151 4.984645367 60.61553192
30.3572216 4.811563015 60.42948914
30.27506638 5.071994781 60.55762482
30.34611893 5.091910362 60.80485153
30.23413277 5.240513325 60.40365982
29.81662369 4.800312519 60.0297699
29.40535164 4.053509235 60.3853569
30.14369011 4.309212208 60.97758484
29.58336639 4.81738472 61.01058578
30.00965691 5.489171028 60.52508545
30.33166885 4.50933075 60.06216812
29.73778534 5.034921169 60.25014496
29.91591072 4.901658535 60.44667435
30.22173882 4.873182774 60.94484329
29.86774254 4.986494541 60.82744217
30.67037392 4.727452278 60.37900162
30.12470627 4.977869987 60.99401474
30.22384262 5.305053711 60.40749359
30.00546074 5.328108788 60.56940842
29.25183487 4.982311726 60.38380432
29.22909355 5.131286144 60.45490646
30.05935669 5.679636478 60.60228729
29.46842384 4.985549927 60.01287842
30.25701523 5.195877075 60.35977554
30.04729843 4.417081356 59.93614578
30.30544662 5.661123276 60.53107834
30.07182312 4.568191528 59.94445801
29.69396591 4.696330547 60.45214081
30.08363152 5.046465397 60.62493515
29.79489517 5.516894817 59.80888367
29.9151268 4.607158184 60.79203033
29.94794464 4.598911285 60.04349899
29.93252754 4.925656319 60.61555481
30.36494255 4.753549576 60.42936325
30.28486252 5.013000965 60.55699158
30.35510635 5.034065723 60.80321503
30.24396515 5.183848858 60.40207291
29.82446671 4.742779732 60.02960968
29.41464424 3.9940238 60.38454056
30.15417671 4.250524998 60.97864532
29.59328651 4.759865284 61.01100922
30.01926231 5.430903912 60.52419281
30.34218979 4.451025009 60.0622406
29.7478447 4.975831509 60.24996185
29.92530823 4.843916893 60.4450264
30.23218918 4.815004349 60.94510269
29.87677956 4.928007126 60.82629776
30.67874527 4.667254925 60.37740326
30.13420105 4.920633316 60.99399567
30.23404503 5.246887207 60.40764236
30.01440239 5.269841194 60.56846237
29.26278114 4.922410488 60.38445663
29.23733139 5.073036671 60.45440292
30.06821632 5.620151043 60.60129929
28.51932526 5.588059425 60.18186569
29.2857151 5.808065891 60.51667404
29.08741188 5.049262047 60.10336685
29.33453941 6.262700558 60.67738342
29.11407661 5.188892365 60.10915756
28.73572922 5.319522381 60.62908936
29.11246872 5.67048502 60.7909584
28.82368088 6.128987312 59.97213745
28.93067551 5.226781368 60.94651794
28.98247528 5.223600388 60.20978165
28.96901321 5.541520119 60.76393127
29.41317558 5.372121334 60.58155441
29.31277657 5.63828516 60.71697617
29.3875351 5.639616489 60.96570587
29.27218819 5.789572239 60.56474304
28.87564278 5.353559017 60.18851852
28.45711899 4.643038273 60.55843735
29.17809296 4.879901409 61.11045074
28.62475586 5.382004261 61.15805817
29.04833031 6.053253174 60.67974472
29.35612488 5.082941532 60.21843719
28.77144051 5.59233284 60.41213608
28.959198 5.466414928 60.60945892
29.25588608 5.42481041 61.08982468
28.92190361 5.553251266 60.98220825
29.71544075 5.303019524 60.55543137
29.16593552 5.532470226 61.14183044
29.25408936 5.861472607 60.55653
29.05030632 5.885797024 60.73431015
28.29269028 5.558681488 60.53102493
28.28550529 5.689305305 60.61903381
29.1053772 6.249097824 60.75442505
28.03010368 4.431903362 60.68440247
28.820364 4.648383141 61.01322556
28.60873032 3.842859745 60.59608459
28.88172722 5.100672722 61.21580887
28.61255646 4.009590149 60.62547684
28.26019287 4.128189564 61.09828949
28.63497734 4.48920393 61.28991699
28.36266136 4.935978889 60.48799896
28.47605705 4.058876514 61.44361115
28.48916817 4.064533234 60.71600723
28.48849869 4.345893383 61.28774261
28.9031086 4.19756031 61.10495758
28.84975433 4.443297386 61.22929001
28.90260315 4.464918137 61.45276642
28.80592346 4.646809101 61.05073166
28.36862373 4.190894604 60.71689606
27.98512077 3.448975563 61.07170868
28.72602463 3.695067167 61.6527977
28.16250992 4.227493286 61.69107819
28.5752182 4.878225327 61.18867493
28.90263367 3.914367676 60.74618149
28.30589104 4.38985014 60.93859482
28.48545647 4.303561211 61.09664154
28.80127335 4.244359016 61.6196785
28.44458961 4.375555515 61.47980881
29.21917915 4.08578825 61.05173111
28.69001579 4.378250599 61.66650391
28.79425812 4.68683815 61.08255005
28.56607056 4.710134983 61.24137115
27.85155106 4.351361275 61.07044983
27.78679466 4.510030746 61.13838196
28.61740303 5.047480583 61.25387192
29.51578903 4.659993649 60.00740814
30.31222534 4.870090008 60.35412598
30.09827042 4.078984737 59.92734146
30.36292267 5.335222244 60.53442764
30.11710167 4.237213135 59.94135666
29.74468994 4.362225533 60.43663025
30.1348629 4.714260578 60.61837387
29.85077095 5.182754993 59.80464935
29.97331619 4.277195454 60.78646469
29.99595261 4.270635605 60.03808594
29.98216629 4.589711189 60.61550522
30.40677071 4.423954964 60.42898178
30.33882713 4.67765379 60.55401993
30.40341759 4.70470047 60.79372406
30.29725075 4.862063408 60.39347076
29.86792755 4.416537762 60.02835083
29.46610641 3.656609297 60.38026428
30.2118454 3.91683054 60.98485565
29.64709663 4.432819366 61.0141716
30.0713501 5.099137306 60.51959229
30.39987564 4.120842934 60.06237411
29.80276108 4.639645576 60.2497139
29.97713089 4.515371323 60.4359436
30.28900719 4.484116077 60.94662476
29.92634201 4.595908165 60.82048798
30.72400284 4.325419426 60.36897659
30.18591881 4.594550133 60.9947319
30.29046059 4.91568327 60.40795898
30.06306648 4.938777924 60.56312943
29.32371712 4.581761837 60.38794327
29.28219223 4.740747929 60.45159531
30.11624908 5.282021523 60.5958786
28.91753578 3.804187059 60.45151901
29.73876381 4.02250576 60.79198456
29.51598358 3.193309546 60.35634995
29.80053902 4.481074333 61.00065994
29.51123428 3.37470746 60.39433289
29.15743065 3.48990202 60.84470749
29.54789162 3.850260019 61.05817795
29.27742004 4.300434589 60.2521553
29.4048996 3.416396141 61.22057724
29.3969326 3.421802998 60.48361969
29.3888588 3.700187445 61.06731796
29.79015923 3.563761473 60.88477707
29.7605114 3.795390129 61.00271225
29.8037262 3.837507486 61.21472931
29.71367264 4.02780962 60.82513809
29.260355 3.568149805 60.48606491
28.88144875 2.784869909 60.83492661
29.64438057 3.04373455 61.45550537
29.06421852 3.587926388 61.48181534
29.48661232 4.23269558 60.96313095
29.82813835 3.267841816 60.52288437
29.22254944 3.753042459 60.71617889
29.39632416 3.661014557 60.86333084
29.71486855 3.613337994 61.40732193
29.33753395 3.731209993 61.25706482
30.11422539 3.429149151 60.81406021
29.59677505 3.741630793 61.45477676
29.71676636 4.048107624 60.8626709
29.46682739 4.076052189 61.00942612
28.77158737 3.686154127 60.8551712
28.67337418 3.865787506 60.90208817
29.51443291 4.394193649 61.02823639
28.55871582 5.269990921 60.14188766
29.32946014 5.486962318 60.4760437
29.12718964 4.718386173 60.06199646
29.3794384 5.941756248 60.64604568
29.15005493 4.86316824 60.07128906
28.77749634 4.99110651 60.58267975
29.15251732 5.343562126 60.75027847
28.8685894 5.802427769 59.9344368
28.97662544 4.903772831 60.9071846
29.02012825 4.901305676 60.16998291
29.00948906 5.214727402 60.73050308
29.44712639 5.048295498 60.54656982
29.35622597 5.31099844 60.67976379
29.42763519 5.317086697 60.92472458
29.31630707 5.471948147 60.52098846
28.90943336 5.03109026 60.15339661
28.49907684 4.312837601 60.51918411
29.22475052 4.553947449 61.08047104
28.67040062 5.060600758 61.12486649
29.09036636 5.72938633 60.64023209
29.40263939 4.757701874 60.18377686
28.81600761 5.263236523 60.375103
28.99951363 5.144684315 60.56694412
29.30314064 5.100662708 61.05592728
28.96264267 5.227664948 60.94193268
29.75296402 4.96867466 60.51132965
29.20852089 5.214396477 61.10623169
29.29917526 5.537393093 60.52300262
29.08979607 5.560221195 60.69460297
28.34111595 5.22775507 60.49983978
28.32326317 5.366020679 60.58316422
29.14566994 5.919136524 60.71622086
28.88710785 3.856742382 60.39966583
29.70462036 4.074729443 60.73896027
29.48279953 3.248347521 60.30524063
29.76586342 4.53249979 60.94676971
29.47931862 3.427731037 60.34184647
29.12570953 3.543314695 60.79493332
29.51409531 3.903546572 61.00602722
29.24385834 4.354015827 60.19995499
29.36961555 3.470097303 61.16809845
29.36413765 3.475060463 60.43145752
29.35658836 3.754881144 61.0142746
29.75930405 3.617102146 60.8313942
29.72664452 3.850506067 60.9500885
29.77141571 3.890287399 61.16377258
29.68062592 4.079081059 60.77251816
29.2291584 3.619841576 60.43320084
28.84976768 2.840789795 60.78293228
29.61003876 3.098885536 61.39968109
29.03199577 3.640825987 61.42733383
29.45311546 4.286725998 60.90993118
29.79305649 3.321609497 60.46980286
29.18889618 3.80684638 60.66246414
29.36241341 3.714751959 60.81150818
29.68142891 3.666488647 61.35294724
29.30583382 3.7851367 61.20415497
30.08238411 3.484428167 60.76177979
29.56421089 3.795048952 61.40023041
29.68218231 4.101476669 60.80945206
29.43446732 4.128623962 60.9569931
28.73743057 3.74229598 60.8012352
28.64319229 3.920279741 60.85043335
29.48296547 4.449141979 60.97615433
29.56552124 4.27604723 60.00127411
30.37326241 4.48776865 60.3475647
30.15424347 3.681715727 59.91588974
30.42645836 4.951982021 60.53800201
30.16536331 3.848527193 59.93770981
29.79886055 3.969964981 60.41657257
30.19037437 4.324306488 60.61083984
29.91163254 4.789217949 59.79872513
30.03724861 3.888321877 60.77949524
30.04764557 3.884526491 60.03208542
30.03452301 4.192948341 60.6143837
30.44996643 4.037074566 60.42828369
30.39669037 4.282441139 60.55020142
30.45439911 4.317265987 60.78091812
30.354105 4.484717369 60.38421631
29.91420555 4.03391695 60.02622223
29.52063179 3.260375023 60.37598038
30.2747364 3.523529768 60.99234772
29.70377731 4.048456192 61.01864624
30.12789154 4.708482742 60.51363754
30.46250153 3.732525826 60.06276321
29.86216354 4.244490147 60.25062561
30.03359413 4.128663063 60.42471695
30.35007095 4.094844341 60.94852448
29.97868538 4.205353737 60.81360626
30.77071381 3.923037529 60.36065292
30.24134445 4.210071564 60.99589539
30.35207748 4.525571346 60.4078064
30.11447334 4.54988718 60.55726624
29.39150238 4.17907095 60.39194489
29.32882309 4.348797798 60.44729614
30.16652489 4.883339405 60.5884819
28.56529045 5.214027405 60.13507462
29.33694267 5.430624008 60.46899033
29.13393784 4.660140991 60.05482101
29.38717461 5.885325432 60.64083862
29.15606117 4.805881023 60.06494904
28.7845974 4.933349609 60.57451248
29.15938377 5.28613615 60.7432785
28.87628555 5.744897842 59.92805481
28.98452759 4.847015858 60.90036392
29.02649307 4.84471035 60.16324615
29.01625633 5.157120228 60.72479248
29.45269203 4.991424561 60.54061508
29.36359406 5.253373146 60.6733551
29.43437767 5.260400295 60.91752243
29.32382965 5.416249275 60.51351929
28.91501617 4.974500179 60.1475029
28.50617981 4.254737377 60.51260376
29.23274231 4.496629715 61.07543182
28.67813873 5.004211903 61.11931229
29.09756279 5.672401905 60.63350296
29.41061401 4.700562477 60.17805481
28.82365417 5.205322266 60.36897659
29.00638962 5.088182449 60.55955124
29.3112545 5.043653488 61.05025482
28.96947098 5.170414448 60.93493271
29.75911522 4.909777641 60.50384903
29.21571922 5.158452988 61.1002121
29.30686569 5.480439186 60.5173645
29.0964489 5.503016472 60.68787384
28.34956551 5.169333458 60.49464035
28.32948112 5.309157372 60.57705688
29.15237999 5.860980988 60.70955658
28.06276131 4.064275265 60.64791489
28.8634491 4.283729076 60.97609711
28.64746857 3.463994503 60.55426407
28.92795753 4.734332561 61.18799591
28.64375687 3.638952971 60.5909729
28.296978 3.754022598 61.04777145
28.6733284 4.11741066 61.25173187
28.40603828 4.559658051 60.4509964
28.52236938 3.687734842 61.40592194
28.52382278 3.696048021 60.67951202
28.52370834 3.966519117 61.25497055
28.92932701 3.828497171 61.07335281
28.88990402 4.066173553 61.19455338
28.93584251 4.094764709 61.40887833
28.84471512 4.286792755 61.01142883
28.39856339 3.826111555 60.68356705
28.02303505 3.071591854 61.03662872
28.77073097 3.319874287 61.62839508
28.20111084 3.860394001 61.66439056
28.61410141 4.504467487 61.15208435
28.94708443 3.544655085 60.7156601
28.34770393 4.012586117 60.90907288
28.52484512 3.934101343 61.05468369
28.84419823 3.872849226 61.59019089
28.47945976 4.00300312 61.44184494
29.24809647 3.702029228 61.0131073
28.72785187 4.010409832 61.63632584
28.83843422 4.31425333 61.05078125
28.60023689 4.338911057 61.20458603
27.90230179 3.966069698 61.04246521
27.81670189 4.134969711 61.10298538
28.64990234 4.666531563 61.2154541
28.60123634 4.895838737 60.09819031
29.37838364 5.111142635 60.43101501
29.17136955 4.329554558 60.01547241
29.4305706 5.565359116 60.61258316
29.18860626 4.481260777 60.03043365
28.8233757 4.605722427 60.52908707
29.19709778 4.9605093 60.7052269
28.91902542 5.418009281 59.89294052
29.02857018 4.524641037 60.86330795
29.0612812 4.523578644 60.12653351
29.05359459 4.829460621 60.69356918
29.48262405 4.668732166 60.50859833
29.4043293 4.926137447 60.6387825
29.4706192 4.938166618 60.87765884
29.36467171 5.100561619 60.47272873
28.94592476 4.654021263 60.1152153
28.54571152 3.92538166 60.4769249
29.27696609 4.171108246 61.04856873
28.72027588 4.684120178 61.08995819
29.13667488 5.348443031 60.59702301
29.45460701 4.377241135 60.14681244
28.86556435 4.876213551 60.33631134
29.04444504 4.767251968 60.51903152
29.35561562 4.719934464 61.0196228
29.0070076 4.845727921 60.8970871
29.79230881 4.575439453 60.46325302
29.25507545 4.840389252 61.06811142
29.34963989 5.156734943 60.4864006
29.13269806 5.178418159 60.65101624
28.39698792 4.837272167 60.46645355
28.36330032 4.985332489 60.54380035
29.18874359 5.530688286 60.67318726
28.10233498 3.69781518 60.64020538
28.9160862 3.92171216 60.96916962
28.69581985 3.087130547 60.54060364
28.9840374 4.37112236 61.18860245
28.68426132 3.271199226 60.58433533
28.34105301 3.382571697 61.0251236
28.72104073 3.748252392 61.24269104
28.45809746 4.185348511 60.44142532
28.57865143 3.31789875 61.39749527
28.5677433 3.329241514 60.67116547
28.56698227 3.588141918 61.25009155
28.96378517 3.461556911 61.07076263
28.93895721 3.690315723 61.1887207
28.97721863 3.72660923 61.39307785
28.89140511 3.929457188 61.00237656
28.43740654 3.464401484 60.677948
28.06842041 2.69528389 61.02949905
28.82432938 2.945269108 61.63477707
28.24672508 3.494585276 61.66710663
28.66181374 4.131742001 61.14448929
29.00094414 3.176814556 60.71317291
28.39828873 3.638029814 60.90872192
28.57426071 3.565459967 61.04189682
28.89518166 3.503647804 61.58981705
28.52199745 3.631999254 61.43345261
29.28536797 3.320233345 61.0041275
28.77411461 3.643223047 61.63572693
28.89248848 3.943352222 61.04730988
28.64289093 3.970283985 61.19638062
27.96195221 3.581049204 61.04240036
27.85390091 3.760188341 61.09466934
28.68964958 4.287064552 61.20542145
28.08694458 3.751157999 60.61948013
28.89795494 3.974462509 60.94783783
28.67843246 3.142340183 60.52072525
28.96536827 4.423662663 61.16632843
28.6680851 3.324777126 60.56328201
28.32472038 3.436634541 61.00658035
28.70347023 3.802060604 61.22193527
28.44027138 4.239758492 60.42078018
28.55971146 3.371976137 61.37656021
28.55092049 3.382851839 60.65039062
28.5504837 3.643416166 61.22865677
28.94861984 3.515206575 61.04895782
28.92128181 3.74548173 61.16750336
28.96087074 3.78016901 61.37345886
28.87428474 3.981424332 60.98139572
28.42167854 3.51689744 60.65668869
28.05197716 2.750826359 61.00867844
28.80605888 3.00037384 61.61114502
28.23006248 3.547988892 61.64438629
28.64439201 4.186238766 61.12321091
28.9823246 3.230717897 60.69152451
28.38055801 3.692527056 60.88656616
28.55646896 3.619477034 61.02162552
28.8775177 3.557443619 61.56743622
28.50577927 3.686278343 61.41234207
29.2695694 3.375980616 60.98330688
28.75722694 3.696982622 61.61324692
28.8740406 3.997396231 61.02568436
28.62637711 4.023765564 61.17546844
27.94318771 3.637494326 61.02021027
27.83880997 3.81506753 61.07413483
28.67381477 4.34250164 61.18483734
28.60707855 4.839852333 60.09186172
29.38544273 5.05509758 60.42447662
29.17769241 4.271378994 60.00862503
29.43800163 5.509169579 60.60784531
29.19402504 4.424203873 60.02453232
28.82983017 4.548141479 60.52106094
29.20353508 4.903326988 60.6986618
28.92627335 5.360472202 59.8868866
29.03614807 4.467973709 60.85690308
29.06713676 4.467133522 60.12023544
29.0597477 4.771749973 60.68816376
29.48745918 4.612059116 60.50315094
29.41119766 4.868505955 60.63279343
29.47669029 4.881575108 60.87065506
29.37155342 5.045203209 60.46581268
28.95097542 4.597777367 60.10972595
28.55225945 3.867355824 60.47081375
29.28448868 4.113793373 61.04418182
28.72729683 4.627869129 61.0850296
29.14332962 5.29142189 60.59079742
29.46213913 4.320358753 60.14159393
28.87272072 4.81840229 60.33084488
29.05092049 4.710801601 60.51200485
29.36314583 4.663075447 61.01449966
29.01315117 4.788602352 60.89054871
29.79772949 4.516551495 60.45636368
29.26169586 4.784401417 61.06264877
29.35695457 5.099865913 60.48117828
29.13874626 5.12141943 60.64471436
28.40514755 4.778608799 60.46170807
28.36879349 4.928338051 60.53800583
29.1946888 5.472471237 60.66685867
28.63872719 4.521394253 60.05754471
29.42439079 4.737041473 60.38951111
29.21266556 3.94127655 59.97102356
29.47932816 5.190369606 60.58193588
29.22332191 4.100824356 59.99224472
28.86478233 4.2216115 60.47658157
29.23864746 4.578942299 60.66306686
28.96613884 5.033645153 59.8533783
29.07805443 4.145806789 60.82222366
29.09901047 4.146558762 60.08592987
29.09339714 4.443474293 60.65862274
29.51335526 4.29034853 60.47377014
29.44880295 4.541160583 60.60057449
29.5090847 4.559775829 60.83200455
29.4085598 4.731071472 60.42821503
28.97886276 4.278995037 60.0793457
28.5881958 3.53839016 60.43759155
29.32576752 3.78803587 61.02077866
28.76506615 4.308287144 61.05899048
29.17931557 4.967212677 60.55688095
29.50333405 3.998035431 60.11287689
28.91154861 4.489969254 60.30158234
29.0865593 4.38988924 60.47367477
29.40382767 4.340054035 60.98670578
29.04667473 4.464453697 60.85538101
29.82679749 4.182439804 60.41912842
29.29758835 4.465869427 61.03363419
29.39730072 4.776431084 60.45230484
29.17142105 4.797883987 60.61026382
28.45042038 4.445284367 60.4358139
28.3984108 4.603691101 60.50621414
29.22669983 5.141885757 60.6324234
28.71239853 4.15312624 60.10714722
29.51054573 4.37019825 60.44008636
29.29392242 3.559263706 60.01616669
29.5686245 4.823564529 60.64223099
29.2972641 3.727818489 60.04501343
28.94369316 3.845391989 60.51319504
29.32112694 4.204851627 60.71183395
29.05226135 4.656440735 59.90435028
29.16870499 3.772798061 60.87200928
29.17695618 3.775755405 60.13649368
29.17165375 4.062960148 60.71409225
29.58244705 3.918593645 60.52994537
29.53312874 4.161183357 60.65297699
29.58626938 4.188484669 60.87556076
29.49124146 4.369284153 60.47622299
29.05067825 3.912479639 60.13407898
28.66782188 3.156279087 60.48895645
29.41419792 3.409625053 61.08565903
28.84682465 3.939284086 61.12012863
29.26194572 4.591593742 60.60907745
29.59287834 3.625078201 60.16975021
28.99679947 4.111119747 60.35929871
29.16945457 4.017944813 60.51914597
29.49017906 3.966927052 61.04602814
29.1239872 4.089434147 60.90557861
29.89987564 3.796381712 60.4671936
29.37819672 4.096199989 61.09231949
29.48526764 4.40264082 60.50869751
29.24910164 4.425670624 60.66087341
28.54274559 4.058081627 60.49624252
28.46975517 4.227097988 60.55772781
29.3021965 4.759057045 60.68169785
0.3029357791 -0.1617873907 0.4864890575
0.1212800592 -0.09204947203 0.621673584
0.2438098341 -0.04332842305 0.5011975169
0.5286183953 -0.03280347586 0.4306417108
0.3216841221 -0.06707505882 0.5245627165
0.2673245072 -0.08051994443 0.5589905381
0.3838325143 0.001990929246 0.4180673659
0.217639938 0.07008302212 0.3349364996
0.07815550268 -0.1977446079 0.4517640769
0.1902636737 -0.04471821338 0.631026268
0.1715152413 -0.2580166757 0.4749971032
0.191247955 -0.07995992899 0.4599148035
0.1259470135 0.001685410738 0.3938122392
0.2572590113 0.1116473451 0.4233340025
0.3088717461 -0.07659061998 0.5094388723
0.1986732632 -0.1183860302 0.3345303833
0.2922700644 -0.03709819168 0.5404139757
0.2404876202 0.004294842482 0.4024096429
0.2218869776 0.004592884332 0.5072305202
0.1598239392 -0.1757703125 0.6324666142
0.2230563611 -0.006620243192 0.466411829
0.1591688246 -0.03976589814 0.4668214321
0.2652401924 -0.09132663161 0.3336779475
0.3465871811 0.01481351629 0.4039509296
0.1415134519 -0.05872820318 0.4137680829
0.2394136041 0.03558074683 0.4400740862
0.3586720228 -0.08823864162 0.5848517418
0.2606556416 -0.08976443112 0.4886866808
0.3229749203 0.1268276572 0.411637485
0.2551987171 -0.0873895213 0.4412160814
0.5030860305 0.05423814803 0.5245589614
0.2724252939 0.05862911046 0.3321679533
0.3354643583 -0.2073315233 0.4782963693
0.1577220261 -0.1384409964 0.6127511859
0.2828912735 -0.08586037904 0.498611927
0.5685529709 -0.079421103 0.4336364269
0.3547874093 -0.1195872277 0.5169296265
0.3035356104 -0.1338402331 0.5579544306
0.4184896648 -0.04049669206 0.4210073352
0.2557390928 0.02150805295 0.33187747
0.1178069487 -0.2389371395 0.451425612
0.2235107422 -0.09118230641 0.6251519322
0.2103274465 -0.3034116626 0.4647750258
0.2282212675 -0.1269070506 0.4599257708
0.1622816622 -0.04564779252 0.3918685317
0.2914315164 0.0596767962 0.4120319188
0.3389665782 -0.1209700108 0.5066884756
0.2399117351 -0.1613062322 0.3290303349
0.330139935 -0.081976071 0.5377964377
0.2760840058 -0.04547652602 0.3923041821
0.2586500645 -0.04437695444 0.4979785383
0.1980064213 -0.2300579697 0.6311670542
0.2597444057 -0.05469308794 0.4593277574
0.1922723949 -0.08997814357 0.4677435756
0.3082800806 -0.1457276344 0.3279934227
0.3775684237 -0.03387704119 0.400611341
0.1732149422 -0.1063556746 0.4119200408
0.2773456573 -0.01286757737 0.4468287528
0.3941259682 -0.1402419209 0.5769871473
0.2954831123 -0.1473708451 0.4817338884
0.3545770347 0.07464629412 0.4075931311
0.2893449068 -0.1311942786 0.4315153956
0.5354623795 0.002177737653 0.5163345933
0.3092813492 0.01513341814 0.3330022693
0.3021386266 -0.1307149529 0.4612575173
0.1213124543 -0.06039113924 0.5964224339
0.2435050458 -0.01103727333 0.4780098796
0.5294415355 -0.00121876318 0.4088745415
0.3206170797 -0.0382184051 0.5007385612
0.267193675 -0.05161191523 0.5361094475
0.3834862709 0.03404484689 0.3963950574
0.2174801379 0.09993268549 0.3110943139
0.07827372849 -0.1658121645 0.4275699854
0.188790068 -0.01364975143 0.6067255735
0.1708206683 -0.2268794477 0.4490463138
0.1909267157 -0.04916905239 0.4379921854
0.1257729381 0.03250716627 0.3697935641
0.2557443976 0.1414391845 0.3981209099
0.307318151 -0.04567578062 0.4871706963
0.1996278614 -0.08770035952 0.309930563
0.29271245 -0.006687858142 0.5176341534
0.2401509136 0.03413456678 0.3762434125
0.2213441879 0.03523977473 0.4831706285
0.158843413 -0.1471669823 0.6102988124
0.2231263369 0.02413264289 0.442268312
0.1580437869 -0.009810519405 0.4455961585
0.2668852806 -0.06242984533 0.3100008368
0.344954133 0.0448667258 0.3808864057
0.1394376904 -0.02785574086 0.3915362358
0.2407885343 0.06597778946 0.4198947847
0.3586778045 -0.05948580429 0.5612022877
0.2603889704 -0.06128074229 0.4642580152
0.3223833442 0.155745104 0.3877335787
0.25400424 -0.05472886935 0.4170998633
0.5014019608 0.08321502805 0.4999549091
0.2715868354 0.09123111516 0.3090558648
0.3230029941 -0.1959313601 0.4347902536
0.1451759636 -0.1266605854 0.569686234
0.26848194 -0.07402282953 0.4564122558
0.5560340285 -0.06629453599 0.3910082877
0.3418945968 -0.1092807949 0.4756274521
0.2910737097 -0.1226285324 0.5151361227
0.4048407376 -0.02833703905 0.3779910803
0.242151022 0.03302411735 0.288115561
0.1034814119 -0.2282323539 0.4066998065
0.2099241316 -0.07949072123 0.5822455883
0.1953846216 -0.2925434113 0.4217531681
0.2141138315 -0.1161438301 0.4181776643
0.1482625604 -0.03441137075 0.347510159
0.2769930959 0.07180586457 0.370519489
0.3259348571 -0.1102974415 0.4657143652
0.2271901667 -0.1512740105 0.2858639359
0.3170605004 -0.07172341645 0.4956332743
0.2625515759 -0.03296422213 0.3486351371
0.2443554997 -0.03280147538 0.4572569132
0.1826937795 -0.2188426703 0.5893968344
0.2464060783 -0.0420554243 0.4169429243
0.1786790788 -0.07797138393 0.4259995818
0.293992281 -0.1339874268 0.2864247262
0.3648374975 -0.02189331874 0.358659327
0.1593874097 -0.09438182414 0.3702411652
0.2662800252 -0.002096354961 0.4042026997
0.3810684979 -0.1294939667 0.5354780555
0.2837670445 -0.135237813 0.4396409988
0.3426636755 0.08626788855 0.3647056818
0.2757174969 -0.1179754436 0.3900578022
0.5220848322 0.01394059509 0.4740184546
0.2955113053 0.02822967619 0.2888246775
0.3211515844 -0.09573116899 0.4708116055
0.1424762905 -0.02511068434 0.605586648
0.2668468058 0.0258617308 0.4907679558
0.5523771644 0.03232719749 0.4255931079
0.339586705 -0.007319539785 0.5102139115
0.2880656123 -0.0215793997 0.5503829718
0.4045064747 0.07034628093 0.4136395156
0.2398282886 0.1321685016 0.3241513669
0.1023631319 -0.1280236542 0.4425387681
0.2079909444 0.0203727074 0.6175221801
0.1940033436 -0.1911706328 0.4568735957
0.2133612335 -0.01462848112 0.4527802467
0.1480379403 0.06659725308 0.3838885725
0.2759797275 0.171987921 0.4051641822
0.3249849975 -0.009956583381 0.4999126494
0.2235775888 -0.05124671012 0.3205926716
0.3153317869 0.02862434834 0.5306118727
0.2616740763 0.06488117576 0.3845002651
0.2436715066 0.06836450845 0.491648674
0.1817825139 -0.1179880276 0.6240985394
0.2451932728 0.05636981502 0.4527569711
0.1778427958 0.02162425965 0.4613149464
0.2938380539 -0.03333960846 0.3208841085
0.3624565303 0.07667697966 0.3935106397
0.1577210128 0.005524011329 0.4054358602
0.2626441717 0.09964134544 0.4394974709
0.3800927401 -0.0290973708 0.571410954
0.2797555923 -0.03421703354 0.4740560353
0.3405668736 0.1853446364 0.3997401595
0.2739705741 -0.0192123279 0.425799191
0.5198212862 0.1130934879 0.5093063116
0.2929220498 0.1269659847 0.3252066374
0.3161674142 -0.218678385 0.4129211307
0.1372600645 -0.1499775648 0.548568964
0.2582394481 -0.09741427004 0.4346987009
0.5473594666 -0.08695957065 0.3663926423
0.3347035646 -0.1316044331 0.4557305574
0.2841396928 -0.1429682374 0.491753161
0.3945099115 -0.05020179972 0.3521664143
0.2328590006 0.01245927066 0.2642924488
0.09267427027 -0.2532581985 0.3824068606
0.2023131698 -0.1019120589 0.5602959394
0.1843874007 -0.3161668181 0.4015085399
0.2036176175 -0.1402792335 0.3947439492
0.1374265999 -0.05775907636 0.3225855231
0.2679858804 0.05187822878 0.3517751694
0.318601191 -0.1336317956 0.4443478584
0.2187209576 -0.1751396954 0.2646464109
0.3072425127 -0.09441823512 0.4730019569
0.2528608441 -0.05144330859 0.3277252316
0.234502092 -0.05479352921 0.4381707907
0.1716907471 -0.2391654998 0.5661767721
0.2368113548 -0.06202346832 0.3956579566
0.1703240722 -0.09772817791 0.4013458788
0.2804613709 -0.1537544131 0.266151756
0.3586783409 -0.04215811193 0.3368026018
0.1521795243 -0.1162017062 0.3471216559
0.2588565946 -0.02561858296 0.3772842288
0.3716942072 -0.1503836513 0.5141575336
0.2779830098 -0.1541511863 0.4199502468
0.3361350894 0.06692139804 0.3425984979
0.2677224278 -0.1401564628 0.369363904
0.5151827931 -0.004462301731 0.4533078671
0.2872421145 0.006081648171 0.263363719
0.329056263 -0.190583691 0.4398659468
0.1519659162 -0.1212115288 0.5745199919
0.276142478 -0.06810303032 0.4622676969
0.5634350181 -0.06156783924 0.3982776403
0.348023355 -0.1050450206 0.4804008603
0.2976478636 -0.118894279 0.5216100812
0.4119251668 -0.02276709676 0.3855462074
0.24947685 0.03742663562 0.2943319678
0.111388512 -0.2218334377 0.4134726524
0.216182977 -0.07439424098 0.5876538157
0.203129977 -0.2869496644 0.4261488318
0.2215522826 -0.1107067913 0.4247900248
0.1557144821 -0.02919090539 0.3541531563
0.2836941481 0.07563089579 0.3744936585
0.3317157924 -0.1046549007 0.4715157449
0.234785974 -0.1453658342 0.291136384
0.3245085776 -0.06629995257 0.5016977787
0.2696449459 -0.02923807129 0.3532166779
0.2516767085 -0.02804978564 0.4616417885
0.1903405488 -0.2153319418 0.5957787037
0.2536432743 -0.0377445668 0.422118485
0.1851398051 -0.07394141704 0.4330155849
0.3029903769 -0.1305701435 0.2915706635
0.3704614937 -0.01765786856 0.3644677997
0.1653397381 -0.0895658806 0.3765602708
0.2731731236 0.003019466996 0.4125502706
0.3881006539 -0.1255441904 0.5405723453
0.2898320556 -0.1324354708 0.444450587
0.3484930992 0.08981444687 0.3704023957
0.282225877 -0.1125290245 0.3947051764
0.5280566216 0.01739620417 0.4788575172
0.3024164438 0.03373092413 0.2960147858
0.3377597332 -0.227316916 0.4173131585
0.1616558582 -0.1587848365 0.5522303581
0.2849548161 -0.1039391458 0.4427357912
0.5738469362 -0.09715239704 0.3788776994
0.3565936983 -0.1449679732 0.4600394368
0.3080960214 -0.157309562 0.501324296
0.4184454381 -0.05722240359 0.3651247323
0.2586397231 0.0009277462959 0.2726905346
0.1201187745 -0.2585889697 0.3926439285
0.2244752198 -0.1114675179 0.5661485791
0.2110123485 -0.3242719173 0.4039661288
0.2291478962 -0.1494980603 0.4049956799
0.1627188027 -0.06753843278 0.3319293857
0.2911460996 0.03811655939 0.3532454967
0.3387088776 -0.1414083987 0.4523119926
0.2463693917 -0.1819832027 0.2706387341
0.3331096768 -0.1027269438 0.4813390374
0.2772732377 -0.06446618587 0.3305781186
0.2598397434 -0.06579631567 0.4411961436
0.1979791224 -0.2543985844 0.5754787326
0.2619425952 -0.07346272469 0.4008873999
0.1928396225 -0.1103158891 0.4127113521
0.3109478951 -0.1691550016 0.2719134092
0.3788530529 -0.05404805392 0.3445337415
0.1732196808 -0.1265984625 0.3562204242
0.284003377 -0.03591816127 0.3931508064
0.3959329128 -0.1640463471 0.5187963843
0.3005353808 -0.1717441976 0.4245918095
0.3569829464 0.05248582363 0.3497674465
0.2906149924 -0.1478888988 0.3726093173
0.5363845229 -0.018803671 0.4573843479
0.3118130565 -0.001563601196 0.2748669088
0.3022851348 -0.07419364899 0.4231966734
0.1213563755 -0.003130245954 0.55900985
0.2416299582 0.04650256038 0.4425709248
0.5294664502 0.05720048025 0.3729928136
0.319696188 0.01582645625 0.4658629298
0.2679969966 0.004191555083 0.5000341535
0.3812971115 0.09236104786 0.3598995209
0.2163619399 0.1563427448 0.273314178
0.07673805207 -0.1101144254 0.3896027207
0.1872832179 0.04276625067 0.5695830584
0.1677001715 -0.1705274582 0.4111193717
0.1888577938 0.005877546966 0.4027348757
0.1237153336 0.0881857276 0.3311576247
0.253294915 0.1983932555 0.3623363376
0.3059424162 0.0103578046 0.4531478584
0.2005013824 -0.03247597814 0.2729809582
0.2920362949 0.04936914146 0.481965661
0.2387256622 0.09179653972 0.3378000855
0.2198383808 0.09210914373 0.4486368895
0.1554040313 -0.09211391211 0.574819386
0.2222774327 0.08183752 0.406321764
0.1567702293 0.04756075144 0.4102805257
0.2651335001 -0.006426561624 0.2752794027
0.3442068398 0.1013131291 0.3456798196
0.1375935376 0.02889054455 0.3563664258
0.2425889373 0.1211746931 0.3843632042
0.3579011559 -0.004761416465 0.5257197618
0.2613653541 -0.005254153162 0.4289441109
0.3226817846 0.2115469277 0.3510932922
0.2527864575 0.00366255641 0.3812128305
0.5000687242 0.1404083073 0.4635340571
0.2703772485 0.1496800482 0.2714160383
0.323492229 -0.03852502257 0.4560320377
0.144370988 0.03293968737 0.591353178
0.2676507831 0.08353707194 0.4772251248
0.5538421869 0.09045256674 0.4115071893
0.3410184383 0.04882515594 0.4972237051
0.2905728817 0.03571341187 0.5365695953
0.4053345323 0.1283836961 0.3993333578
0.2409592122 0.189205423 0.3093442321
0.1035265774 -0.07158812881 0.427800864
0.2091724724 0.07739940286 0.6030635238
0.193973437 -0.1337368488 0.4421473444
0.2142256349 0.04181746766 0.4391821623
0.1490287185 0.1233804971 0.3686589003
0.2767717242 0.2297228575 0.39177531
0.3264921904 0.04696436599 0.4872231185
0.2257510871 0.005025923252 0.3062306643
0.3168130517 0.08577124774 0.5169007182
0.2629516721 0.1225062385 0.3696349859
0.2451194674 0.1261965185 0.4789108932
0.1817184836 -0.06133633852 0.610275507
0.2468097061 0.1140018553 0.4393681586
0.1794416904 0.07955191284 0.4476420283
0.2947645783 0.02392315865 0.3080554605
0.3641017079 0.1335555911 0.3802327514
0.1588635296 0.06281805038 0.3921017051
0.2653426528 0.1563743353 0.4255263805
0.3817911744 0.02718979493 0.5582976341
0.2820827365 0.02320858091 0.4608783722
0.3429205418 0.2420310676 0.3855781555
0.2754309177 0.03860415146 0.4123629928
0.5210869908 0.1709743887 0.4954194427
0.2941088676 0.1848671287 0.3106330037
0.319789052 -0.08658248186 0.4379454255
0.1420578957 -0.01560599729 0.5729091763
0.2655909061 0.03606417775 0.4602030814
0.5526875257 0.04261140525 0.3963598013
0.337875247 -0.0007839873433 0.4791409969
0.2875680625 -0.01459662244 0.5199741125
0.4029395878 0.08063644171 0.3842059672
0.2390671372 0.140445888 0.29234761
0.1014846936 -0.1182366759 0.4108749032
0.2058710456 0.02949527279 0.5855829716
0.1923381984 -0.1822956949 0.4238535166
0.2120028436 -0.006170567125 0.4235089719
0.1467579901 0.07535475492 0.3522193134
0.2735178769 0.179948017 0.3730931878
0.3225771785 -0.001093149185 0.4704575539
0.2240586877 -0.04261416569 0.2883800566
0.3150562644 0.03686514497 0.5002089739
0.2603963017 0.07336857915 0.3510001898
0.2420628667 0.07686696202 0.4607611299
0.1795327365 -0.1112944633 0.5943940282
0.2444125414 0.06562241912 0.4210142493
0.1758127809 0.02985653654 0.4322955012
0.294018805 -0.02624898031 0.2902159691
0.3603953421 0.08522549272 0.3631335795
0.1550537348 0.01456549205 0.3758321106
0.263696909 0.1076938957 0.4112763405
0.3791837096 -0.02221724764 0.5404217243
0.2793805003 -0.02758370712 0.4424147606
0.3394590616 0.1925845146 0.368311137
0.2721861005 -0.008276011795 0.3942452371
0.5175055265 0.1205395758 0.4772992134
0.2915439308 0.1379223317 0.2944128513
0.3147014976 -0.09582637995 0.4279295206
0.1364175081 -0.02501235157 0.5629714727
0.2590889335 0.02643023618 0.4496378899
0.5466341972 0.0340497233 0.3845421672
0.3327605128 -0.009232986718 0.4695821404
0.2821196914 -0.02254484221 0.5088237524
0.3969658017 0.07135915011 0.3721138835
0.2330016792 0.1321070045 0.2813779712
0.09474357963 -0.1283508241 0.399253428
0.2006275356 0.02057913691 0.5753730536
0.1857177913 -0.1918668747 0.4142860174
0.2056266963 -0.01551988348 0.4122955203
0.1404019296 0.06620732695 0.3407136202
0.2677936256 0.1720312238 0.3640078902
0.31765908 -0.01053887233 0.4600318074
0.2178415656 -0.05233466625 0.2783301771
0.3088891208 0.0275529474 0.4895735979
0.2543653846 0.06569137424 0.3412382603
0.2358122468 0.06816469878 0.451423943
0.1729183942 -0.1190971658 0.5835744143
0.2383203208 0.05746298656 0.4109553695
0.1703149229 0.02180420607 0.4208436608
0.2863465548 -0.03387807682 0.2801752687
0.3557157815 0.07698916644 0.3525506854
0.1499848962 0.005832241848 0.3648368716
0.2580851018 0.09860794246 0.3987702727
0.3732557297 -0.0303286463 0.5303397775
0.2744591832 -0.03463556617 0.4327101707
0.3346530199 0.1849426627 0.3577646613
0.2667176425 -0.01732690632 0.3846426606
0.5125264525 0.1129510626 0.4675395489
0.2857414484 0.1287884861 0.2823761106
0.3528527617 -0.1812415421 0.4348487258
0.178044185 -0.1121439114 0.569286108
0.3029483259 -0.05720090866 0.4609028995
0.5905899405 -0.05250940472 0.3997653127
0.3717225194 -0.1002639383 0.4764677286
0.3238713443 -0.1136970967 0.5209596157
0.4357778728 -0.01139861345 0.3868007362
0.2759638429 0.0449507609 0.2921414673
0.1388491392 -0.2105667293 0.4131720364
0.2400937825 -0.06591365486 0.5837800503
0.2293808907 -0.2773331106 0.4203182757
0.2471936047 -0.1028450131 0.4246947169
0.1810721308 -0.02141034603 0.3525015116
0.307811588 0.08138302714 0.368674159
0.3536807895 -0.09483269602 0.470476985
0.2636337578 -0.1350434721 0.2880692482
0.3507148027 -0.05661540851 0.5000749826
0.2944806516 -0.02206959948 0.3474058509
0.2775802612 -0.02053149417 0.4571017027
0.2162278891 -0.2111445069 0.5945499539
0.2795134485 -0.02974671125 0.4183508158
0.2090898901 -0.06674978137 0.4332036376
0.3316732049 -0.1262475252 0.2892540693
0.3931518197 -0.01032525301 0.3629989028
0.1885047853 -0.08151040226 0.3756423593
0.300080657 0.01017896086 0.4158508778
0.4129332304 -0.1201966107 0.5363058448
0.3152153492 -0.1297274381 0.4410644472
0.3718262613 0.09494454414 0.3680787683
0.3067367375 -0.1022459418 0.3893049657
0.5510348678 0.02361024171 0.4741712213
0.3282845318 0.04410447925 0.2964425087
0.3103218377 -0.1279413104 0.4079349041
0.1315729022 -0.05761460587 0.5433995724
0.2527325451 -0.006085379049 0.4297848344
0.5415215492 0.003299371339 0.3630729318
0.3283492625 -0.04116088152 0.4507814646
0.2777187824 -0.05338526145 0.4879118204
0.3906265199 0.03976742178 0.3498403132
0.2272674441 0.1013377756 0.2602375448
0.08796167374 -0.1617687643 0.3776196241
0.1958680153 -0.01126752328 0.5553911328
0.1790031046 -0.2246908993 0.3953525126
0.1991427541 -0.04846337065 0.3915270567
0.1336894929 0.03375402093 0.3188791275
0.262108773 0.1415640116 0.3459522724
0.3130757213 -0.04309828952 0.4404099584
0.2126119435 -0.08518084884 0.2587554455
0.302808404 -0.004795036279 0.4692142606
0.2483124435 0.03625474125 0.3217847347
0.2294905186 0.03629364818 0.433164835
0.1661562622 -0.149752453 0.5629297495
0.2323408127 0.02717170864 0.3911632895
0.1649734974 -0.00861231517 0.3993425369
0.2780113816 -0.06429663301 0.2610974908
0.3518821895 0.04656022787 0.3325833082
0.145408541 -0.0256867893 0.3441610336
0.2536807656 0.06590356678 0.3758225441
0.3674044311 -0.0612869449 0.5106811523
0.2709752917 -0.06449746341 0.413962841
0.3305912614 0.1549806297 0.3376893997
0.2616091967 -0.04885479435 0.3654058576
0.5081558228 0.08330519497 0.448282361
0.280598402 0.09725673497 0.2601594329
0.3086595535 -0.07576838136 0.421943903
0.1293459684 -0.004590231925 0.5573284626
0.2508686781 0.04601731151 0.4429399669
0.5387306213 0.05483083799 0.3762381077
0.3263472915 0.01197594218 0.4642937779
0.2753321528 -0.0006747469306 0.5015021563
0.3897556663 0.09117116779 0.3636320829
0.2251748443 0.1529381722 0.2741971612
0.08642120659 -0.1096324772 0.3912101984
0.1939881742 0.04086086154 0.5690734386
0.1772122532 -0.1718952358 0.4088155031
0.1978481114 0.004491351545 0.4048957229
0.1327544451 0.08645778894 0.3328922093
0.2606657743 0.1938902438 0.3593630195
0.3118635714 0.009100668132 0.4536858201
0.2098125815 -0.03326487914 0.2720447183
0.3011960983 0.04738258943 0.4828075469
0.2470923662 0.08723258972 0.3356135488
0.22825104 0.08918395638 0.4465619028
0.1645634621 -0.09716233611 0.5764760375
0.2309187055 0.07853280008 0.4052399993
0.1637507826 0.04333922267 0.4132176638
0.2770843804 -0.01169035584 0.2743756771
0.3498601913 0.09788741171 0.3460451365
0.1436384171 0.02647794411 0.3579025269
0.251115948 0.1190399081 0.3895998299
0.3661921024 -0.009052753448 0.5248696804
0.2680914104 -0.01160982996 0.4271703362
0.3288879395 0.2066073269 0.3511273861
0.2598738372 0.002792734653 0.3795778453
0.506185174 0.1349349469 0.4619980156
0.2782610357 0.1488344371 0.2741108537
0.3070914149 -0.07096767426 0.4193336666
0.1272555292 0.0002388879657 0.5549409389
0.2483187318 0.05058971792 0.4400777221
0.5363090038 0.05998582765 0.3725097179
0.3246124387 0.01726490259 0.461999625
0.2734862864 0.005013596267 0.498257637
0.3873913884 0.09599980712 0.359719038
0.2227397561 0.1582500041 0.2709980607
0.08374527842 -0.1054966673 0.3878076077
0.1921610236 0.04572081566 0.566339016
0.1744916141 -0.1671486199 0.4065538645
0.1953582466 0.009114488959 0.4015214741
0.1302100122 0.09123452008 0.3293866515
0.2585866749 0.199581176 0.3574377894
0.3103180826 0.01375045627 0.4508420229
0.2074001431 -0.02877829224 0.2694052756
0.2987073064 0.05226565152 0.4797475934
0.2448420525 0.09299056232 0.3332832456
0.225933373 0.09438812733 0.4444716275
0.1619475484 -0.0914253667 0.573199749
0.2285737395 0.08391058445 0.4027647972
0.1618823111 0.04895182326 0.4095952213
0.2737642527 -0.005830913782 0.2719184756
0.3484101295 0.1032375172 0.3432074785
0.1419851482 0.03154538199 0.3547185659
0.249032408 0.1238959357 0.3852603137
0.3639950454 -0.003608509898 0.5223891735
0.2664285004 -0.005499940366 0.4249279499
0.3273290396 0.2123657763 0.3482852876
0.257935673 0.007502496243 0.3772581816
0.5045729876 0.1409128308 0.4596267641
0.2761273384 0.1535591036 0.2704225183
